# This PCD file was generated using the MATLAB® pcwrite function
# from Computer Vision System Toolbox®.
# .PCD v.7 - Point Cloud Data file format
VERSION .7
FIELDS x y z
SIZE 4 4 4
TYPE F F F
COUNT 1 1 1
WIDTH 1580
HEIGHT 1
VIEWPOINT 0 0 0 1 0 0 0
POINTS 1580
DATA ascii
28.949041 25.571827 39.481922
26.587423 25.545120 83.181252
26.060308 25.451883 83.510742
-43.865467 25.892815 10.489964
-35.843571 25.860220 34.147064
40.898811 25.881042 0.165567
42.427391 25.494280 3.634153
-34.743076 26.025660 34.712154
-37.128460 25.660103 33.199562
-31.446581 25.442780 36.507240
-25.952539 25.247765 83.394890
37.479591 25.458218 65.393822
41.027851 25.436817 0.165586
41.317055 25.217405 27.238850
44.545238 25.346310 15.483903
44.515015 25.432821 17.111612
5.864851 25.517643 89.545433
5.904029 25.517628 89.585831
28.923197 25.616304 39.455776
-34.096378 25.202997 63.699249
-34.057652 25.224009 64.178429
26.456142 25.040934 83.100853
-41.422268 25.279053 0.165513
41.093300 25.226929 0.165985
-34.397049 24.813753 60.049858
-41.483765 25.058554 0.165516
-41.686516 25.059988 0.555900
41.155315 24.996201 0.165582
-37.229343 24.686441 33.250557
-28.686056 24.952820 40.954773
41.349236 25.045691 0.612183
44.124584 24.701263 11.410330
-44.701523 24.558933 11.617224
43.972244 24.712000 9.595639
-36.105152 24.799742 33.987587
-34.088257 24.607212 62.963646
29.073996 24.505083 39.917206
37.675674 24.334415 57.111774
-12.623692 24.342876 89.676636
38.047504 24.162174 32.204575
-44.199139 24.437180 9.318318
-41.916470 24.211554 0.574280
-42.841331 24.057785 3.061989
-40.794640 24.346024 29.105864
42.812496 24.148411 4.138360
44.025082 24.276951 9.562700
21.653833 23.650726 87.465637
37.502377 23.895649 56.002583
36.962494 24.054972 67.316032
-44.475670 24.013056 10.695568
-44.780415 24.026619 12.213085
-43.978123 24.215349 20.428110
-41.732918 24.179415 0.165536
-40.781746 24.170275 29.178579
39.096966 23.881414 30.428005
39.215500 23.909225 29.916773
-28.377028 23.942873 42.106495
-34.044907 23.978319 60.286652
-14.919798 23.856884 88.705101
-44.818424 23.762022 11.877842
-1.713534 23.673220 89.587830
41.738407 23.888672 0.824406
-41.299168 23.607746 27.533831
-28.725395 23.431314 42.505806
-44.161121 23.364426 7.722086
-44.120567 23.657568 19.860075
-40.823284 23.722162 29.135408
39.179951 23.627335 30.096125
43.889721 23.567230 21.007978
44.899693 23.608538 16.355206
44.866173 23.644270 16.552048
9.069939 23.682676 89.339645
34.848274 23.422802 47.379452
34.466465 23.414352 46.576809
35.013237 23.319868 34.214016
41.551800 23.446074 0.165559
39.334827 23.230902 29.806976
44.626591 23.273003 18.298433
44.942112 23.306744 16.350933
-28.311588 23.314547 42.331371
-29.034351 23.330669 79.555977
34.098972 23.066671 45.939499
-44.818581 23.237312 11.875838
-41.967789 23.287863 0.165703
-42.951519 23.323841 24.216223
-33.183037 23.287251 35.139465
-28.810516 23.194424 41.828632
-13.423460 23.270895 89.690613
41.635750 23.192425 0.166982
41.608097 23.225533 0.165606
43.899529 23.053822 8.006698
44.174980 23.226715 13.999986
44.365082 23.040512 12.557267
44.510170 23.164301 18.826256
44.900017 23.040579 16.986588
9.117558 23.265045 89.487480
11.749242 22.410673 90.173615
22.396795 22.940512 87.030067
-42.011440 23.065748 0.165509
-40.296417 22.901569 30.028830
39.417061 22.882732 29.704695
44.013523 23.034931 8.528005
44.364120 22.944178 13.117973
44.941044 23.047276 16.576956
-44.679783 22.955927 11.028354
-33.116268 22.946997 49.872082
-44.850288 22.956150 11.745988
43.999096 22.607613 8.459369
-1.678685 22.759315 89.917297
25.106169 22.539600 84.883286
27.564541 22.806824 81.792824
14.766654 22.784580 90.133392
-44.768188 22.792425 11.371802
-44.565876 22.791216 10.788944
-44.867489 22.734665 11.760275
-44.868793 22.734665 12.070231
-42.043213 22.678652 26.186644
-41.952507 22.787870 26.388111
-34.674717 22.326611 34.282242
43.427982 22.390955 22.582409
-42.105324 22.622702 0.165532
-40.012054 22.918554 30.395584
-34.078583 21.911150 59.679642
-14.000417 22.235718 89.533562
39.400501 22.291424 29.966002
43.684761 22.138485 21.812214
-44.079929 22.196089 20.404089
-42.949909 22.346863 24.187460
-32.204361 22.242811 36.199047
-42.746284 22.211733 24.719772
-35.382298 21.812841 33.821716
28.794109 22.179783 80.133232
-44.851048 22.363232 13.490966
-29.136793 22.077085 43.188862
-29.059732 22.145050 43.343555
-34.041092 21.500509 59.193596
41.853527 22.115007 0.165513
43.622063 21.888123 22.031769
32.037380 22.011305 35.965900
30.600584 21.950300 38.718880
-43.919479 22.014452 21.084969
-44.168320 21.829552 19.901901
-29.138508 22.005161 43.473724
-21.485373 21.151672 86.169388
-44.435574 21.758974 8.965013
-44.435242 21.776035 9.257860
-42.286297 21.960751 0.165567
-32.095566 22.003658 36.414997
-14.695024 21.763582 89.203720
-11.698719 21.288086 90.719528
-11.104815 21.838354 90.876602
-11.030283 21.214918 90.963875
-44.847897 21.906448 14.132739
-44.857754 21.850361 14.057607
-44.495304 21.704220 10.964632
-44.600250 21.668318 11.273581
-44.356483 21.683275 10.676723
-29.215940 21.787012 43.675869
-29.254332 21.670980 43.790295
34.733646 21.521196 33.913433
34.233601 21.441877 73.064873
-42.510517 21.744251 0.653808
-42.331593 21.739054 0.165509
-29.371618 21.642092 43.446857
-9.914819 21.479082 91.169022
41.983768 21.675167 0.165730
31.836060 21.453741 36.366020
2.800089 21.402443 91.645294
40.655846 21.317032 28.073263
42.770672 21.352842 24.207596
-44.435242 21.333279 8.855361
-42.382217 21.521704 0.165505
-3.451701 21.433563 91.098206
-44.653084 21.151405 11.752000
-44.475258 21.241426 9.251395
-15.483514 21.440086 88.713814
-10.478436 20.951281 91.118629
42.080326 21.230785 0.165509
-32.079109 20.490271 73.232986
30.130983 20.847076 77.863586
-42.465382 21.075939 0.165509
-29.956270 20.915884 42.252037
42.141869 21.013477 0.165497
42.287872 21.008839 0.616245
42.664883 21.087160 1.983235
32.287865 20.911356 35.616291
15.101773 20.865263 90.072906
36.342289 20.575304 52.928417
42.201721 20.782492 0.165861
-32.629250 20.746569 35.579430
-31.511322 20.496740 49.543606
44.361790 20.455233 16.174541
30.441032 20.521563 77.357529
-42.565613 20.630642 0.165505
31.186373 20.488152 38.426811
44.360806 20.621954 11.200410
-42.750393 20.133160 24.203903
-32.786083 20.641703 35.346321
44.202347 20.085741 15.805781
44.282352 20.135284 16.367252
43.614803 20.236591 21.668089
-42.612137 20.410673 0.165505
-31.596979 20.200966 38.536224
-31.344307 20.224012 39.341019
42.314281 20.346077 0.165540
43.314857 19.881495 4.164217
-44.657185 20.114035 12.898564
-14.452714 19.949533 89.400360
39.240479 20.065290 30.115625
43.975437 20.068689 8.008027
43.365856 19.967360 22.180866
-31.596996 19.935514 38.875690
-31.299347 19.930279 39.640270
-30.583740 20.033756 40.629272
42.360924 20.115746 0.165451
3.514992 19.916565 92.003311
44.056614 19.626795 18.497265
-30.590334 19.797638 40.813240
42.391369 19.901751 0.165547
-31.442503 19.902122 74.388718
41.815632 19.513460 25.638042
42.436615 19.682365 0.165544
-42.760807 19.756443 0.165710
-31.779646 19.550138 38.639595
-30.798004 19.765291 40.422527
-30.701487 19.742598 40.577236
-7.460874 19.634441 91.653152
42.573616 19.733667 0.673719
31.899122 19.624834 38.270985
0.694671 19.740377 91.777199
39.908710 19.332388 28.059866
40.894089 19.394815 27.064823
19.877317 18.837326 88.087265
-30.908949 19.487879 40.376568
-2.759730 19.333397 91.002785
-32.423538 18.560925 70.866699
-32.097828 18.936977 72.182617
-31.973843 19.266527 72.773346
-11.099407 18.888222 90.843246
29.894833 19.299013 42.024193
29.910547 19.357250 41.990295
33.075096 19.069273 34.150986
34.779381 19.010201 32.849857
43.811806 19.401207 20.202070
11.337541 19.226984 89.794556
-42.863922 19.306559 0.165505
29.957834 19.290659 41.896725
-44.542099 19.360350 10.069403
34.349773 18.658552 70.257637
-42.913090 19.072670 0.165757
-31.033693 19.016150 40.347961
31.561996 19.024313 40.324585
29.557318 19.064604 78.977417
-43.111732 18.856272 0.799918
-42.956165 18.865307 0.165485
-31.086269 18.804016 40.536991
31.715345 18.673592 40.366787
-33.283325 18.606440 34.207867
33.950428 18.581038 47.715103
33.532627 18.536684 46.923710
32.551750 18.617599 73.284607
-43.129665 18.640816 0.722122
-42.994156 18.637293 0.165509
-31.179579 18.513273 41.799007
30.873121 18.540838 41.510628
31.503763 18.634638 40.745617
-33.353821 18.400818 34.005878
30.111370 18.415325 42.456223
-44.554691 18.434055 10.971663
-43.041870 18.402384 0.165931
30.124952 18.409748 42.399536
41.979744 18.058853 24.492990
30.758142 18.083630 43.126614
30.194216 18.084373 42.666313
-29.876028 18.177572 45.050644
42.708904 18.124409 0.165505
30.293201 18.132881 42.212971
30.404791 17.907511 42.212238
-41.343414 17.578730 26.024986
-32.100021 17.933464 51.525314
43.614315 17.792057 18.677412
33.125957 17.851503 71.491180
-17.416039 17.642521 87.302444
-2.707772 17.993570 90.945221
-44.397030 17.610191 9.901402
-44.095287 17.493988 16.291437
-33.220909 16.956980 56.415375
33.776691 17.703932 32.833664
43.932831 17.692080 16.843950
43.621838 17.598667 18.532715
-33.424236 17.699764 33.764507
32.261520 17.593346 39.537209
-42.714928 17.572411 22.394978
1.356766 17.287004 91.996933
40.223850 17.524065 26.478462
32.329632 17.481325 39.287125
11.716347 17.361633 89.635048
-43.897629 17.272249 17.653263
-30.400087 17.243773 47.569092
-17.295561 17.402277 87.405678
1.210462 16.933502 91.924706
42.799084 17.227943 0.165501
-31.658010 17.377708 40.662994
-31.693745 17.242052 41.563339
-37.764183 16.780958 29.579138
-33.904625 17.083481 32.679958
1.143566 16.248074 91.845856
41.776501 17.057709 23.211575
42.032497 17.002573 22.264048
41.961472 16.998983 22.501497
41.906441 17.062654 22.715569
20.906021 16.299469 86.812782
-43.280617 16.979778 1.214534
-43.180428 17.034119 0.165497
-31.771639 17.099438 40.392605
42.827480 17.024681 0.165435
42.938217 16.958096 1.296492
-39.611668 16.517437 27.484037
-34.096378 16.831316 32.359020
33.101242 16.534735 34.244072
42.873753 16.852757 0.543442
-35.204838 16.399555 31.122904
0.509456 16.416000 91.719170
41.221100 16.485254 23.641331
43.195221 16.535669 18.973166
20.313375 16.239260 87.134521
31.023806 16.605597 74.692993
-43.449997 16.457161 18.305328
-40.015480 16.431160 26.975716
-37.158695 16.350838 29.733326
-33.749310 16.255066 32.761032
-33.326660 16.258186 58.557884
30.477451 16.479925 43.641666
41.763611 16.421888 22.482157
40.506187 16.323969 24.673243
42.334164 16.410799 21.431541
42.123085 16.339294 21.758623
35.257759 16.333609 63.489151
34.930763 16.312222 65.030769
35.165813 16.399357 64.274605
34.970879 16.314486 65.045403
34.135872 16.230274 67.256439
-43.872852 16.068893 7.165934
-43.561008 16.184034 15.416824
-43.516403 16.184238 15.680923
-37.578773 15.952714 28.954645
-34.257523 15.977106 31.613743
-43.980301 15.959722 8.250242
-43.183937 16.000788 0.729708
-21.663542 15.330010 83.136696
-8.299804 15.643641 90.883354
43.667999 15.716228 13.731348
2.611177 15.803433 91.926254
34.843273 15.416093 62.469376
-33.880367 16.062243 32.364372
-39.956814 15.266251 25.604570
-34.369156 15.747801 31.316675
30.949642 15.760670 44.471260
34.970299 15.475081 55.986519
-20.659184 15.321413 83.715797
40.160122 15.443810 24.816839
41.237953 15.744010 23.198174
43.266197 15.367883 15.845716
28.197716 15.359061 79.901070
33.091064 15.041721 36.708241
33.560566 15.429755 32.282589
-24.047344 15.416341 0.165501
-20.929157 15.199001 83.443222
38.501400 15.053946 26.763414
42.802147 15.310286 0.423697
5.386710 14.802707 91.579491
33.560169 15.203564 32.423149
-42.856094 15.149055 16.988630
-30.555252 14.892918 72.488205
-21.288080 15.031547 83.136879
36.563763 15.092178 28.818239
34.730133 15.069353 30.156952
29.871771 14.146523 76.581818
-27.080681 14.919817 0.466577
-23.479868 14.973100 0.165501
-10.617435 14.392160 90.098930
41.304520 14.872130 22.102568
12.547428 14.866056 88.867622
6.583795 14.675505 91.340157
33.206142 14.557418 36.830120
-43.638920 14.364320 12.163445
-34.145103 14.656942 31.198984
33.893707 14.648206 30.988665
42.574825 14.581953 2.005762
-4.377229 14.537616 90.514954
-43.274971 14.712110 0.486737
42.936466 14.537930 0.501314
33.916645 14.414393 30.818880
34.144127 14.379800 30.236042
33.646629 13.727527 54.476177
42.684216 14.366633 1.337605
-43.336864 14.287524 0.492167
-43.100197 14.259582 1.180402
-27.232651 14.167438 3.856132
-30.849762 13.897129 70.469353
36.198822 14.107786 27.992441
35.841530 13.897850 28.070116
42.856434 14.094731 6.389749
-6.002446 13.908726 90.470253
6.044689 13.426752 91.108955
-42.685467 14.051890 16.893002
-23.201809 14.143294 0.280107
42.818859 13.827601 7.002173
43.053646 13.983328 13.253351
-42.606495 13.685368 1.985588
-27.568628 13.796539 3.571827
-29.414461 13.676251 73.785965
-18.839922 13.420377 85.195412
28.271523 13.882059 0.162714
1.653943 13.459702 91.294174
2.554738 13.394772 91.337730
33.697929 13.768806 34.363155
-43.199009 13.616708 0.967474
-42.346416 13.532311 17.082333
-28.010876 13.251666 1.653476
-27.751925 13.385213 6.272732
-34.518696 13.597137 29.643526
-32.166576 13.058842 60.641251
12.987979 13.684635 88.238098
31.493429 13.415233 45.986443
-42.963135 13.011574 12.294171
-22.768677 13.424070 0.165501
-34.891762 13.374431 28.598387
-29.403101 12.766711 72.746017
-19.089458 12.721231 84.689957
39.231247 12.986302 22.723898
42.107147 13.256053 1.967180
-31.782822 12.836832 44.812927
-43.410187 13.492520 0.603838
-42.263821 13.107013 1.998483
-42.141037 13.098784 2.239970
-42.181767 12.906736 4.840955
-25.925047 12.912907 3.341406
-22.374186 13.202352 0.165559
-22.603451 13.202538 0.113407
-22.772755 13.202669 0.230618
-28.137760 12.961605 6.206038
42.675217 13.065435 8.590444
42.697712 13.046253 11.986308
42.697075 13.010221 12.219667
42.737331 13.010671 12.466402
42.731411 13.020233 12.584694
42.638920 13.041904 12.841247
14.246917 13.059175 87.553848
31.124907 13.102842 46.985180
-42.177818 12.851259 1.776458
-27.360931 12.800448 7.726319
-27.498625 12.716025 8.023694
-30.978065 12.620966 53.987335
23.658077 12.834549 0.166687
34.499249 12.784316 28.063387
34.417324 12.775568 28.331249
42.534973 12.808902 12.159376
31.109247 12.993512 47.083992
-41.940945 12.611850 1.770008
-42.360825 12.621036 14.750047
-22.234013 12.761797 0.165265
-22.480072 12.759645 0.109500
-28.509798 12.475570 7.628714
-27.299032 12.697110 7.555980
-33.387756 12.630811 38.276745
-33.287437 12.629113 38.501225
-27.618410 12.455666 8.287169
-22.280256 12.406921 80.527763
28.423183 12.498945 0.165501
41.147827 12.154000 4.162007
-34.516968 12.490666 31.225750
-27.296518 12.449867 7.544050
28.421921 12.553652 0.165501
-28.833031 12.228021 5.984303
22.042372 12.117187 0.167683
38.095337 12.101201 22.790209
40.860447 12.117476 17.574270
36.334961 11.945545 24.549770
-29.256273 12.128624 0.163427
-29.440311 12.100829 0.165501
-22.122440 12.095179 0.165501
-22.381605 12.095380 0.116012
-22.733236 12.095651 0.379084
-25.319258 11.818102 2.679551
23.863319 11.793280 0.264134
27.773130 11.908006 9.318981
38.118450 11.876660 22.285526
14.741642 11.892145 86.881615
-38.254890 11.732291 22.247149
-35.079624 11.818947 26.256960
-34.185627 11.782404 36.700848
-41.482662 11.518123 6.688228
-37.775307 11.590026 22.547789
41.738422 11.477986 10.771987
30.808012 11.600266 48.496834
26.707045 11.106161 6.092141
-41.387669 11.304194 7.247791
-41.783623 11.307834 12.068840
-35.788071 11.378574 24.356936
-22.280535 11.432401 0.119919
29.297192 11.101014 5.004038
29.580187 11.115401 8.609002
41.468777 11.246085 11.404946
11.600535 11.227628 88.396751
-37.908401 11.147848 21.429075
-35.815674 11.161255 23.798515
-35.092026 11.028331 24.666285
-35.325062 11.091239 24.257280
-29.398573 11.050498 51.354107
29.537094 11.086072 9.115739
40.619080 10.950032 14.906192
38.646893 11.112130 20.023426
24.165276 11.117126 81.699669
14.595594 11.018785 86.448570
-26.735867 11.158553 5.339708
-41.372551 10.935931 9.112010
-40.076172 10.910977 3.468853
40.563854 10.786352 7.402126
40.728470 10.875225 7.723998
34.691429 10.895346 24.445978
30.149269 10.958606 0.159916
34.180611 10.438170 36.181065
-40.142696 10.782003 0.332200
-22.167746 10.768124 0.121221
-22.115969 10.357841 0.118617
-30.817846 10.302425 13.000892
-34.883202 10.233642 21.836687
-28.194843 10.174114 71.609680
29.971523 9.986438 4.114894
30.784376 10.033360 6.343775
38.939297 10.145392 3.456314
39.400875 10.055205 1.950362
39.212631 10.146048 2.538961
40.129868 10.103012 12.891530
39.679909 10.153772 15.109860
39.953049 10.075865 13.417589
-34.923210 10.234626 30.199221
39.626381 10.440996 0.165361
34.371906 10.094419 35.056698
-31.464378 10.063636 13.461938
-31.446125 10.020310 12.851138
-31.291529 10.078159 12.164895
-30.034943 10.087772 3.457760
-22.100510 10.137730 0.118617
-30.592730 9.899983 4.519867
-30.231167 10.091590 13.324972
-29.009266 9.977438 52.070782
-20.474382 9.726900 81.598579
-3.846468 10.059257 88.528206
29.717939 9.911084 0.666668
30.826601 9.923824 5.893461
29.895220 10.030985 13.364337
31.061100 9.985418 7.802250
38.721676 10.022900 3.995478
39.544464 10.009325 1.522362
39.249355 10.038717 2.312490
39.681396 10.090028 0.228013
39.682667 9.993108 8.544873
39.154579 9.999442 15.987512
39.785824 9.924115 9.364854
39.985973 10.005798 9.933018
40.013168 9.948530 10.452806
27.413019 9.660931 76.783875
-34.049328 9.921150 37.697346
31.417181 10.044283 48.460880
34.005283 10.040687 42.166679
-39.010159 9.831444 3.288406
-30.156010 9.782940 0.165540
-30.144424 9.786738 0.656083
-30.552576 9.715059 4.052727
-23.165987 9.704986 0.858666
-31.461813 9.821870 14.861707
-30.559221 9.813743 13.931726
-34.173553 9.821843 21.219341
-28.961149 9.817467 52.211967
-29.029171 9.898243 52.121235
-22.027866 9.697509 79.345192
-20.774408 9.691803 81.163338
21.738811 9.859041 0.114710
30.254805 9.695784 4.239302
38.394176 9.739815 3.990502
38.420177 9.767695 4.216077
38.821907 9.775478 2.965023
39.781483 9.845111 0.459829
39.657753 9.845203 0.165501
39.557869 9.712521 9.898715
39.756344 9.762091 11.216270
39.672798 9.776339 12.629957
34.286556 9.769847 20.058653
30.897284 9.654776 58.669640
-34.751713 9.671637 26.953650
21.565422 9.754315 0.065527
21.467251 9.778777 0.165555
34.308418 9.762691 26.085438
34.452629 9.296862 35.845440
33.178524 9.495910 45.396126
32.370663 9.624675 47.004799
33.683086 9.616547 39.437317
34.362518 9.645423 35.968628
21.465212 9.722508 0.165501
-38.074280 9.360401 5.964008
-38.270500 9.397902 6.632507
-25.746017 9.625488 3.454392
-32.622688 9.342920 7.665609
-24.127422 9.313188 75.365089
21.682486 9.441033 0.122524
29.188656 9.268500 52.064106
-37.545799 9.121840 6.215650
-33.012283 9.183124 8.250304
-33.165916 9.138492 7.650001
34.446434 8.999703 27.001295
34.150967 9.211310 42.607605
39.129478 8.758162 0.165501
-36.208817 8.442555 2.896518
-36.053837 8.442435 3.041078
-34.599506 8.441574 4.110534
-30.780775 8.436497 1.787508
21.837759 8.396996 0.292343
21.569695 8.417478 0.165501
35.794037 8.389330 2.819777
39.401077 8.381915 0.880539
34.295502 8.386683 42.809464
34.298492 8.385430 42.832195
21.439491 8.397997 0.104186
21.347963 8.385655 0.164962
39.270981 8.384093 0.160516
-30.812811 8.319837 1.676209
-32.464668 8.384012 4.077774
34.476986 8.295422 3.581304
-35.096706 8.325787 3.090567
-34.195251 8.326263 2.812960
-33.858082 8.309530 2.851956
34.034328 8.272410 3.058008
34.958305 8.270034 2.987760
34.145088 8.272429 38.979855
32.007374 8.351004 48.537388
-38.886833 7.977872 1.925800
-31.395714 8.022532 2.376351
-33.094078 7.840592 18.826872
-31.564890 8.026230 2.629419
-6.268933 8.057602 87.768333
30.334225 8.090335 0.165501
16.695295 8.030376 83.640083
16.792418 8.016726 83.595451
13.997422 7.695866 85.228355
-34.179893 7.695076 22.992535
30.353767 7.949682 0.165106
-35.117859 7.919477 0.823185
-31.003746 7.674924 1.370594
21.793991 7.819460 0.296231
39.169159 7.862116 0.165501
34.415348 7.890856 0.163710
15.759617 7.585133 83.553894
8.626209 7.776231 88.069427
-30.676586 7.906163 0.407585
-30.688019 7.857480 0.165470
-30.696274 7.828797 0.990412
-29.701847 7.617997 52.238853
29.419178 7.820278 10.786301
34.713528 7.277742 36.688549
-35.792683 7.643900 0.962536
-34.921371 7.697917 0.307456
-34.861462 7.697870 1.094072
-30.875448 7.434898 0.423441
-12.689201 7.483190 85.884171
32.648285 7.481729 2.636555
6.366189 7.324762 88.380043
2.637344 7.538775 88.846329
8.198128 7.248401 87.865898
-34.337997 7.307742 23.709599
-30.742577 7.257168 12.915568
29.421045 7.267537 10.512961
30.073750 7.242827 12.132271
-34.555092 7.461430 0.164338
30.486086 7.426015 0.729417
30.914557 7.425685 0.165501
7.931474 6.843145 87.677719
-27.901850 7.008213 63.546120
-16.703581 7.176605 83.206398
-3.363557 6.941266 86.927292
22.426353 7.140710 0.688017
23.602379 7.004755 1.550343
33.506424 6.786703 21.343431
35.952805 7.050364 0.518334
36.009434 7.035321 0.981505
14.765274 6.697845 83.898094
14.659680 6.836982 84.078140
-33.249283 7.048364 19.175814
-24.950220 7.133958 2.491240
33.180199 6.648674 47.402405
34.828312 6.937184 34.637951
-37.935959 6.981929 1.597433
-27.337646 6.973274 65.776726
30.763144 6.983006 0.961233
-31.143824 6.751993 0.514206
-24.386515 6.735682 1.887831
31.358212 6.625275 1.537215
31.662632 6.651442 1.865431
-27.724205 5.993389 6.170347
34.514496 6.668240 42.525616
34.503155 6.380555 42.471020
-31.387665 6.589503 0.992489
-31.340868 6.475739 0.672227
33.830357 6.399711 0.529373
-35.091694 6.477068 30.093054
34.561676 6.459579 42.813812
-33.944340 6.370082 0.992489
-34.544346 6.216852 38.568691
-23.185553 5.698464 0.964753
32.696129 6.095421 18.511604
-34.565544 6.293931 38.382900
29.368696 5.767755 53.425026
28.820404 5.667060 54.063068
30.164223 5.766643 52.530155
-22.871471 5.737984 0.729735
-26.499748 5.648521 62.542053
33.509609 5.648417 21.678461
34.558372 5.365170 28.771246
-23.990431 5.575451 1.537219
-26.517412 5.921551 54.628246
33.245857 5.875403 0.269688
-26.345675 5.700022 55.060623
-24.612516 5.584435 67.297066
-19.065760 5.449322 79.483910
28.482727 5.272347 56.840443
-30.357613 5.247332 11.195611
-34.151337 5.553319 43.690239
30.617723 5.303134 52.183174
34.392929 5.283871 45.256382
-32.895267 5.624909 18.109524
-26.121357 5.385271 62.592079
-24.555103 5.352891 66.688614
-29.949165 5.341538 10.300513
-28.609785 5.275239 7.584702
-34.609394 5.414485 39.141727
24.204973 5.109121 2.070193
21.464794 5.219370 0.165532
-28.812706 4.807095 7.911383
-34.770782 5.185513 39.129757
-34.699203 5.139017 39.483997
-25.761429 5.036663 56.157200
-32.317310 4.979639 49.065418
-32.106125 4.966244 49.539513
-31.805830 4.984124 50.069088
-22.139914 4.645780 0.165501
-33.931992 4.639140 43.576576
-28.478737 4.601070 53.209156
-25.352034 4.649741 58.677967
28.192484 4.179399 61.454773
-34.351963 4.714203 40.957367
-34.332832 4.700536 41.122715
-32.192535 4.527170 49.567703
28.646465 4.343967 54.773575
-21.821758 4.581737 0.165536
-24.364927 4.434487 62.880623
-24.261625 4.454991 63.388565
22.910536 4.387122 0.997923
27.654409 4.504639 55.487728
34.441021 4.259567 43.234211
34.865917 4.446685 39.335804
-34.253735 4.093639 24.783741
-30.258795 4.218725 52.020996
-24.980539 4.371870 57.174328
-24.145365 4.298020 62.963501
22.541664 3.603688 0.755212
31.461397 4.004115 15.026829
12.879695 3.947052 83.035042
35.018463 3.749333 32.975136
28.126514 4.123519 55.212482
-33.770977 4.014305 43.420429
-30.405102 3.913843 51.817169
-23.940487 3.997870 61.650826
22.873682 3.868249 0.970551
-35.140991 3.903734 40.155613
-33.851528 4.013436 43.125076
34.941235 3.798365 32.445099
34.252285 3.905455 42.255722
-33.885746 3.482141 23.006157
-23.802994 3.819233 59.957180
-23.728273 3.758934 60.366287
-13.093949 3.824299 82.419540
-35.526646 3.835381 35.879063
-35.516598 3.874280 36.187744
-22.028318 3.769058 0.165435
30.242821 3.830295 53.350021
-35.072189 3.655902 30.509958
-30.444780 3.436962 51.618958
25.201231 3.407764 3.086954
34.249981 3.536870 42.721954
-35.149963 3.589801 40.481659
-33.641251 3.550556 44.193882
-23.450970 3.485098 58.843937
26.770060 3.388101 55.933098
13.984166 3.048668 81.368942
1.212362 3.434970 85.683815
29.042894 3.212844 8.956028
29.580870 3.185999 10.116864
35.178463 2.886845 34.457958
26.580973 3.170371 56.023056
23.828978 3.041571 72.638344
-35.618851 2.797991 35.458721
6.555869 2.872682 84.871231
17.962490 2.686564 76.987862
-29.931093 2.983888 52.129776
29.904345 2.653009 54.174286
29.265850 2.496663 54.719166
28.923172 2.732254 54.950832
26.923256 2.961919 55.862190
34.634041 2.684637 45.925217
-31.849123 2.548861 15.396514
-27.254097 2.855953 5.186218
-30.977139 2.707219 50.837170
-22.906652 2.613269 59.461079
-22.977339 2.639300 59.967129
8.313862 2.591834 84.075935
22.232374 2.490442 73.620041
29.614630 2.622893 10.179896
29.553240 2.508295 54.516491
-33.651844 2.548625 22.340858
-35.203682 2.498155 40.643528
-35.013599 2.492403 41.135696
-22.315626 1.959526 0.406817
-22.908590 2.543175 59.822502
27.532215 2.196028 55.625118
28.159407 2.364770 55.334888
32.732822 2.090275 20.107702
32.974537 2.234998 21.148279
35.200573 1.777641 39.295494
29.964306 2.310618 54.226227
-33.464481 1.762233 21.939274
-21.787407 2.017085 67.530853
-4.483997 2.225075 82.037796
26.650261 2.154834 4.915793
19.373003 2.088206 75.390854
-35.664108 2.001515 37.789894
-33.668453 2.252812 45.929249
-32.487392 2.308297 47.895763
-32.622131 2.244571 47.671783
-31.162928 2.330390 50.475185
21.514933 2.179226 0.165695
34.622723 2.189679 42.341618
26.518709 2.103849 56.368507
34.551411 2.280378 46.614525
-31.466091 2.031484 14.385330
-24.448868 1.981460 1.986347
-34.105606 2.038248 44.443478
-33.941059 2.114403 45.268253
-15.297881 1.944549 78.770500
-4.774822 2.034011 81.748299
34.250755 1.996336 43.884548
7.453233 2.034337 83.796738
25.802973 2.019751 57.253616
25.672243 2.008612 57.540844
25.660244 2.003751 57.446850
25.599792 1.849959 63.762871
27.759472 2.016178 55.522820
25.109192 1.926510 66.701477
-35.451382 1.945235 39.669609
-32.691883 2.065492 47.806244
-32.588993 2.091078 47.987122
-31.809278 2.065081 49.439354
-30.869452 2.089961 51.380817
-30.669067 2.073527 51.918964
-30.503363 2.049655 52.195534
-29.821171 1.879289 53.378559
29.465441 2.026581 54.658344
34.515209 1.977077 46.887321
34.596325 2.009100 46.597900
-34.521347 1.826862 41.731773
32.243359 1.662543 18.419569
13.641438 1.770296 80.190414
25.657972 1.945576 57.537685
-33.960701 1.935689 45.356995
35.039749 1.775362 32.777355
-21.848820 1.592790 0.165555
-25.765259 1.763885 57.981785
34.242447 1.651248 44.244057
-33.897640 1.683760 45.856251
-33.252140 1.708415 47.457966
-23.303223 1.379017 60.170815
35.211727 1.089568 40.012913
-33.494129 1.166081 22.435892
-16.675177 1.351978 76.629295
-10.081065 1.171309 80.782272
-34.406158 1.461816 42.503109
-33.446697 1.472037 47.428509
-27.849859 1.143325 6.208193
-16.777231 1.076154 75.969307
-4.888125 1.244566 80.742050
24.831661 1.227027 58.763332
-34.613697 1.267458 42.298019
-33.971458 1.274210 44.957333
-33.526703 1.237004 47.532013
-32.103947 1.161495 50.249187
-31.846394 1.092564 50.810616
-28.537523 1.134956 55.381916
-21.814457 1.096642 0.165501
33.003731 0.705119 22.190161
33.522434 0.783011 50.147373
-25.868610 0.648429 3.518862
-22.105547 0.492536 0.335886
-21.813324 0.876539 0.165501
-21.469507 0.876272 60.816986
24.044725 0.650785 63.926155
-35.814533 0.551141 36.959278
-23.337248 0.655018 60.641167
-21.248283 0.653398 61.218109
-2.039626 0.273006 81.454269
-32.226105 0.438962 50.589676
-32.457417 0.256564 19.119295
-21.893110 0.433799 0.139454
-22.457029 0.434233 61.173828
14.345584 0.125377 77.480537
27.839558 -0.116726 56.544598
-21.309095 0.395744 61.514687
-22.191525 0.211332 61.664818
-21.856815 0.211076 61.662209
-18.694672 -0.013454 70.005440
33.006519 0.053795 22.432373
34.146950 -0.017438 45.912834
-35.727081 -0.079222 42.960976
-32.574604 -0.363875 50.431900
35.166550 -0.114563 32.927383
27.562439 -0.106920 56.930141
-22.279692 -0.143571 0.483651
-27.836620 -0.154509 6.469722
-21.364702 -0.009399 62.133659
-21.806194 -0.009058 62.097191
-20.419201 -0.010128 62.362869
27.107025 -0.762344 5.984171
-31.153620 -0.281789 52.731152
-27.938017 -0.606420 6.747116
-10.173934 -0.712483 78.025108
-33.660454 -0.548691 48.525448
-31.372438 -0.708212 52.687771
34.089577 -0.455822 26.077909
34.042816 -0.557490 25.635822
31.881193 -0.741150 53.036411
31.516235 -0.488768 53.320076
-20.250240 -0.454365 63.102600
-5.466929 -0.620289 77.968208
-1.745670 -0.743546 80.301758
-35.427773 -0.577459 40.239624
-32.141479 -1.044533 51.632488
-31.843042 -0.751794 51.935795
-31.498539 -1.038556 17.074965
-31.419243 -0.886330 16.531919
-21.964249 -0.618428 0.324386
-19.672169 -0.674909 61.419975
-12.586456 -1.040362 75.964401
4.378880 -1.460994 80.308861
-27.102839 -1.089115 58.644073
-19.532776 -0.620304 63.611816
33.548176 -0.789422 50.874763
29.480333 -0.873663 54.708305
-19.378012 -0.896531 64.084572
-19.163126 -0.896694 64.322899
-16.067577 -1.454583 70.880150
-15.043490 -1.870587 71.295471
21.838572 -0.928353 62.569939
34.698341 -1.064238 44.710056
29.590139 -1.011145 54.656364
-18.378695 -1.507312 62.293068
-18.897615 -1.118301 64.571648
-16.732971 -1.659802 69.061218
-16.388779 -1.495708 70.242897
21.278397 -1.149325 63.115623
-35.053593 -1.332179 26.496410
35.242371 -1.700624 31.881620
34.016903 -1.281504 46.685364
34.017414 -1.294496 46.780746
-32.347675 -1.553747 19.536156
-1.461462 -1.870936 78.831093
-35.572834 -1.678236 31.391903
29.901352 -1.530002 54.650108
-18.188223 -1.616344 61.993004
-18.363997 -1.561514 61.909653
-34.539986 -1.869114 46.573143
33.369061 -1.545460 51.289036
-17.810673 -1.783338 64.063728
-17.474670 -1.783594 66.008133
-17.429085 -1.783633 66.250366
-9.072327 -1.881944 76.275536
27.571400 -2.514779 7.439681
-32.998581 -1.935386 20.209682
-35.490726 -1.910812 44.603191
32.648029 -1.988960 20.197168
28.944281 -2.030023 56.778172
-17.272974 -2.003852 65.149887
31.294792 -2.099876 53.287209
-35.626900 -2.046108 30.359102
-35.620426 -1.774594 39.278950
-34.685825 -2.404406 46.200157
35.396503 -2.181024 25.595749
-17.442240 -1.949014 64.123634
30.715809 -2.165287 53.889824
-16.856394 -2.225567 65.593987
-17.340357 -2.503244 66.907402
36.022495 -2.611299 25.507385
35.470226 -2.811324 32.007427
33.267609 -2.628540 19.585115
28.549673 -2.826387 58.049427
-16.878601 -2.502624 67.160126
-22.171375 -3.038970 0.606230
-34.382557 -2.793456 19.441267
-31.267267 -2.596648 17.473991
-25.024252 -2.704494 62.026138
31.759594 -2.836790 18.232443
35.476498 -2.878558 32.368786
35.531792 -2.928969 33.149998
30.062153 -3.101149 15.795247
-31.852064 -2.947946 17.845646
-34.281410 -3.012489 18.767902
-31.455029 -2.965892 17.513775
-17.484943 -3.501300 67.712379
35.587902 -3.288934 32.531879
-2.460436 -3.325019 75.576492
-33.472923 -3.247538 17.819513
-33.000546 -3.176878 17.912382
-34.923996 -3.201088 18.717739
-35.500229 -3.216127 19.204723
-34.388271 -3.233313 18.183138
31.396297 -3.277980 17.472708
35.622288 -3.316849 31.509315
36.237247 -3.474222 29.254608
31.615051 -3.297554 53.587387
32.177948 -3.434989 52.380169
-21.850485 -3.273476 0.406643
-35.627029 -3.448369 41.203091
6.674544 -3.562944 76.244446
-37.627129 -3.440640 24.529739
-35.628365 -3.480742 40.005043
-35.064980 -3.478548 45.033455
35.886765 -3.597805 30.806379
35.338318 -3.823280 44.160393
32.048107 -3.434454 52.602989
-12.616989 -3.557230 69.605209
-7.972499 -3.730286 71.658325
4.490830 -3.791799 76.368965
-36.215347 -4.064026 38.512405
-15.391093 -3.600456 68.814537
21.902550 -3.855512 0.666641
34.149021 -3.748434 17.036608
-12.117102 -3.833722 69.210594
-11.942590 -3.833853 69.107712
-5.329238 -3.784256 70.958351
-5.822828 -3.783876 70.936203
21.070433 -3.810504 0.165765
21.318087 -3.870210 0.292661
5.553557 -4.048173 75.522888
13.614655 -3.798884 69.481483
-30.597273 -3.867210 16.072165
-12.258876 -3.880924 69.424889
29.394650 -3.959490 58.130379
5.392047 -4.483751 74.495491
4.476915 -4.038545 75.817429
-21.504057 -4.290702 0.165478
32.536579 -4.164267 15.523624
-3.916539 -4.228151 71.897331
30.396496 -4.342664 15.571159
30.579453 -4.366928 15.469992
33.904072 -4.334246 49.437103
-5.178729 -4.504565 68.395332
-5.189105 -4.448557 68.535980
-3.061069 -4.450200 72.334915
28.993561 -4.605054 13.322359
-38.470364 -4.559566 26.512335
35.827469 -4.694450 16.207325
35.854935 -4.951809 33.252785
38.136391 -4.547620 22.024458
38.189205 -4.763211 21.219246
24.651909 -4.637868 63.899181
33.628674 -4.767963 50.744724
-25.701792 -4.908476 4.158805
-4.502940 -4.671799 69.140274
28.699884 -4.839499 12.430603
10.423230 -4.683319 71.196671
-38.616039 -4.781614 26.769915
-35.834076 -4.792854 43.356022
-35.737888 -4.810823 44.332321
-35.387131 -4.866367 46.791237
29.465775 -4.865948 14.128665
33.986073 -4.855033 14.042377
-6.395380 -4.733923 72.051422
-3.764681 -4.895072 69.977676
27.373615 -5.029694 8.113710
-38.819611 -5.016136 20.993835
-36.547543 -4.975887 15.815425
-23.694162 -5.062190 1.727508
-36.316917 -4.961546 38.614788
-35.508457 -5.029260 46.276344
38.431038 -5.030911 21.004072
27.234142 -5.089322 62.319038
32.677727 -5.122989 53.756184
2.523746 -5.177253 73.101318
25.232302 -5.451581 4.039393
6.126446 -5.125400 72.612320
-39.309532 -5.347968 23.310400
-39.298252 -5.365844 23.895500
-33.941818 -5.151726 12.968027
-14.955608 -5.338480 70.440880
30.168859 -5.209362 13.272886
36.762711 -5.255766 16.231661
12.453125 -5.449543 71.228493
-37.248695 -5.444582 15.805995
-38.141369 -5.372100 29.438528
-34.588474 -5.443442 12.630077
-32.476948 -5.668467 55.748642
-34.823860 -5.619467 12.416037
-39.441643 -5.548521 23.429861
-38.383099 -5.730406 29.448967
-38.226501 -5.855113 29.843178
-22.054464 -5.655056 0.291665
-27.836990 -5.824709 8.129265
-28.101219 -5.894880 8.653623
-36.411331 -6.390900 41.792995
-16.866453 -6.047471 70.158455
22.671371 -5.975439 1.007555
37.853737 -5.875477 29.864876
38.193691 -6.099510 29.408148
11.484690 -6.376753 72.300491
-28.283009 -6.183177 8.557583
-22.008327 -6.120619 0.165528
-22.517805 -6.171433 0.543880
-25.967815 -6.092688 4.527468
-35.050316 -6.076401 11.523114
-34.647007 -6.084161 11.060304
-29.182119 -6.054068 10.459205
-36.434654 -6.254558 40.886513
-32.006889 -6.242232 57.647846
-29.666031 -6.164224 61.598122
38.431805 -6.163790 17.568396
8.878103 -6.416629 73.014954
19.059822 -6.641933 69.247795
-28.490633 -6.347404 8.455585
-22.072342 -6.342257 0.165559
-22.933647 -6.735198 0.703618
22.834984 -6.529801 1.012563
27.215336 -6.401761 7.031596
28.009567 -6.431505 8.056059
38.447811 -6.529282 16.723202
37.281498 -6.326636 31.261599
19.689610 -6.546793 68.817574
7.554428 -6.642965 73.535484
-38.981579 -6.657182 16.646448
-22.538607 -6.506235 0.472554
-22.179363 -6.556274 0.165749
-33.377861 -6.693725 8.392442
-32.054668 -6.530754 8.045841
-36.516335 -6.953596 39.982101
-36.472458 -6.731562 40.706512
-36.388485 -6.847982 43.099251
29.456278 -6.610414 7.807920
35.153061 -6.667864 10.867848
-36.893997 -6.783447 12.379292
-38.690926 -6.801641 15.718549
-22.570280 -6.734586 0.395437
-22.299368 -6.782788 0.165772
-34.247543 -6.749152 9.023811
24.022678 -6.745547 2.248183
-39.512432 -7.264335 28.339317
-34.974628 -7.073573 9.177290
-36.580704 -7.602509 40.388771
27.507191 -7.070418 6.073280
27.354515 -7.084705 5.839790
27.684410 -7.038100 6.211604
26.128426 -6.977441 65.739609
33.954655 -7.296700 53.672195
-38.824242 -7.611462 14.414439
-22.532097 -7.222389 0.166013
22.205809 -7.269753 0.165513
-23.530169 -7.311397 1.024749
22.989799 -7.261179 0.908012
26.931519 -7.285102 5.182261
33.459129 -7.216807 7.712144
39.053204 -7.238350 17.002680
-27.391598 -7.427577 4.860556
26.794067 -7.453515 4.774513
37.163483 -7.547469 12.080592
36.200851 -7.841782 39.819748
39.275261 -7.452026 27.938749
26.657269 -7.476755 66.202438
30.736586 -7.746812 62.369759
-10.610880 -7.982117 73.979233
11.497128 -7.943759 73.599922
36.162720 -8.063334 38.958050
24.619047 -7.959341 2.267947
30.986099 -8.001605 4.265907
38.224865 -8.028365 30.998882
25.768980 -8.015132 67.451225
36.167068 -8.395710 44.508663
32.257885 -8.111490 59.714302
36.128117 -8.243181 38.527889
-38.734440 -8.329189 12.980283
22.761433 -8.178994 0.165854
-36.230446 -8.308554 47.789219
-20.784943 -8.459896 70.008865
22.906620 -8.135769 0.306816
24.918283 -8.139676 2.366297
25.142317 -8.157196 2.538205
38.138885 -8.370950 31.242949
24.801802 -8.376632 68.170723
-0.157159 -8.224243 75.614220
35.324184 -8.706651 51.514389
27.341398 -8.153420 67.005501
27.949141 -8.319686 66.995705
-23.300194 -8.361787 0.165982
-26.662409 -8.509122 68.059662
22.917746 -8.397368 0.165978
39.840359 -8.674930 17.088566
38.966133 -8.560556 29.782457
36.232800 -8.482788 40.225430
36.203751 -8.811814 45.224960
-38.699627 -8.621378 12.337083
-40.124302 -8.764441 27.436266
-39.909164 -8.649007 28.273121
-29.410536 -8.809024 1.664767
-30.208307 -8.665464 66.496277
-27.193495 -8.503641 67.936432
-24.409979 -8.541083 68.592216
-20.336706 -9.092553 70.748108
-10.114394 -8.746737 74.706055
28.322166 -8.588765 2.023662
30.255766 -8.703891 2.519399
33.571255 -8.595417 5.223370
39.807854 -8.866272 16.542463
30.494373 -8.710782 65.544250
-36.275925 -9.208772 37.037590
-32.392536 -9.003816 3.013345
-27.753197 -8.841040 68.415321
22.721682 -8.778263 69.245956
30.288240 -8.810481 66.123886
30.316566 -8.926056 66.469231
29.414093 -8.817597 67.161316
-36.129726 -9.182577 36.185192
-40.305134 -9.259082 16.337807
-37.651722 -9.111158 9.485405
-24.644560 -9.102212 0.461306
-25.018976 -9.013134 0.805457
38.775791 -9.152632 12.633361
39.910477 -9.399874 16.058605
39.734112 -9.159027 15.665013
31.057293 -9.111615 65.855766
-40.371063 -9.756722 15.832417
36.332489 -9.378866 7.562294
-36.089909 -9.669636 35.840931
-30.986250 -9.484262 1.288364
-37.469692 -9.754637 33.116302
-34.389938 -9.592295 58.188137
-12.030664 -9.653830 74.877342
-0.424254 -9.801234 76.695587
36.430840 -9.772451 44.043892
-36.057644 -9.909499 36.078922
-38.685520 -9.797505 31.389690
-36.355438 -9.673287 6.519680
-34.963112 -9.768567 56.551624
38.290779 -9.832529 31.396500
38.472183 -9.831305 31.144764
39.871513 -9.785629 27.410566
-40.560688 -9.972693 16.837273
-19.570759 -10.014717 71.917282
-8.984512 -10.313906 76.086990
38.320206 -10.191447 31.399143
-40.391682 -10.268068 15.309793
-36.813736 -10.130773 48.281311
-22.446997 -10.458070 71.317001
-22.998837 -10.501675 71.249466
-21.838869 -10.290619 71.262215
34.114548 -10.221850 3.420911
40.071735 -10.405209 15.671253
39.996037 -10.330371 15.135946
40.185997 -10.397046 16.256174
39.205509 -10.639405 29.603960
-40.578331 -10.442868 16.094095
-6.903369 -10.371394 76.578323
39.042244 -10.634141 30.048452
33.356701 -10.666048 1.981933
36.509415 -10.855127 42.118053
40.147655 -10.908749 15.398801
17.526897 -10.823027 73.270660
23.573317 -10.703529 71.412186
39.114632 -11.085672 29.827713
-35.263203 -10.877128 3.387244
-33.711967 -10.811902 65.788765
-33.922256 -11.215084 67.984077
-22.567181 -11.045230 71.949692
33.943653 -11.146309 2.051476
39.319046 -11.120045 29.374573
12.447857 -11.416730 75.764000
31.214884 -10.895934 71.422569
-39.099731 -11.028796 30.695917
-35.559998 -11.327279 3.282449
-31.730976 -11.087075 71.891739
-3.802623 -11.064765 77.408638
33.504333 -11.113006 1.567378
35.000355 -11.182092 3.306429
40.223896 -11.231767 15.565268
31.084845 -11.195363 72.082649
31.765053 -11.085603 71.417450
-39.984379 -11.437923 28.500040
-39.219074 -11.394427 30.406607
-41.006657 -11.250504 21.263786
-40.608994 -11.343915 26.100262
-34.025707 -11.384660 68.793541
33.757542 -11.675787 1.262503
34.818375 -11.602336 2.593500
40.188541 -11.588956 14.930092
33.343006 -11.395156 69.922455
-3.900419 -11.749842 77.828392
34.072174 -11.602398 1.691414
35.131550 -11.553297 3.111555
-40.125351 -11.701415 27.960218
38.012444 -11.783307 31.794136
-37.116001 -12.027208 52.437103
-37.087795 -12.163473 52.901924
36.613670 -12.073108 41.529991
40.030640 -11.917734 13.797650
40.611622 -12.077852 22.789490
34.276035 -12.125644 69.074501
29.053406 -11.749159 73.246666
-40.803322 -12.364832 15.834565
-37.241570 -12.070728 43.503151
-34.605183 -11.974208 67.358734
33.565308 -12.086069 71.940872
-37.526932 -12.817991 44.732269
-33.889893 -12.420422 0.165788
-36.662434 -12.384274 55.574955
-34.831821 -12.476321 71.291611
-25.436296 -12.514081 73.726463
-40.028633 -12.609547 28.000307
-33.629387 -12.718075 73.884674
-1.545145 -12.716215 78.406906
36.838470 -12.921426 53.832123
33.157902 -12.670198 73.750137
34.701111 -12.655556 68.164070
-36.556820 -13.125451 33.959335
35.611050 -13.203800 34.796646
36.193874 -13.095621 33.959259
-36.236481 -13.179444 59.138950
-14.461596 -13.260289 76.301239
-40.968063 -13.356950 16.712759
-41.007065 -13.374337 17.570503
33.980156 -13.156017 0.165954
-35.243061 -13.141165 64.813759
35.823586 -13.224313 59.284794
37.843178 -13.388709 5.928729
25.995277 -13.251553 74.543182
35.349590 -13.910443 36.290115
-40.851723 -13.477469 15.479096
-37.730194 -13.494702 51.801395
-36.568142 -13.410531 58.018414
34.143066 -13.381454 0.165803
36.302948 -13.481354 57.444565
36.918610 -13.461377 54.469383
-40.892307 -13.802729 22.987188
40.571236 -13.557703 22.780272
38.770340 -13.928404 29.593504
36.343319 -13.889729 33.455570
-34.662964 -13.567657 0.165912
-27.748295 -13.717100 75.242020
34.272152 -13.619526 0.165978
13.602690 -13.678774 76.670982
9.563369 -13.880822 78.092751
30.618809 -13.590378 75.723396
-36.848148 -13.865528 33.326942
-34.791676 -13.804783 0.165547
36.566715 -14.123360 40.294964
35.065617 -13.802853 65.538528
36.409977 -13.856527 57.719044
20.502905 -13.997847 74.755554
34.597008 -13.882031 74.794655
35.665947 -13.905171 69.883759
33.930676 -13.953490 75.510712
-40.501099 -14.157608 12.707804
-40.970299 -14.059863 16.352528
40.320541 -14.161716 14.244748
34.255222 -14.080638 75.489693
-37.135536 -14.195601 32.763245
39.780678 -14.519758 26.367857
40.611591 -14.276896 21.232609
-34.999615 -14.261408 0.165629
-37.818260 -14.682039 43.721424
-35.666977 -14.342074 65.519348
38.461758 -14.538100 6.726740
-37.395233 -14.684737 32.101517
-36.791821 -14.748815 32.958961
-36.039833 -14.645690 34.115505
-35.700775 -14.602302 34.778893
40.265495 -14.736668 23.784189
40.103874 -14.593612 25.004839
-37.926819 -14.429835 52.339195
-36.129871 -14.511433 61.735870
-32.210182 -14.510146 76.986526
36.366993 -14.980747 59.282726
40.336727 -14.584518 14.364295
5.300198 -14.568426 79.135597
-40.892887 -14.874707 15.793665
-38.011913 -14.732985 52.368771
-36.199032 -15.011212 62.199341
-33.003429 -14.890468 77.419174
-24.381878 -14.805552 75.482414
-23.315657 -14.804002 75.405067
-18.956810 -15.056144 75.767960
36.999580 -14.826575 56.364830
37.131721 -15.289804 56.418098
5.042792 -14.978708 79.362930
8.365622 -14.966724 78.866585
34.506371 -14.773180 76.464020
-35.798958 -15.201726 34.281616
-40.815880 -15.076717 14.954688
-36.750748 -15.187330 39.381859
-36.691357 -15.023499 59.830479
-35.928711 -14.997368 66.095932
-24.889782 -14.885289 75.614525
34.860344 -15.021236 0.166726
34.831600 -14.987841 0.165633
35.257683 -15.168532 0.742444
36.261528 -15.363581 60.357574
39.211563 -15.025407 8.714491
16.988581 -14.996446 76.156609
39.084221 -15.165772 27.867201
35.072540 -15.541845 35.809788
-38.242905 -15.159695 46.368576
34.904560 -15.214811 0.165536
-28.520735 -15.463472 77.086594
-29.046320 -15.320960 77.166046
35.988384 -15.274091 38.342869
38.773373 -15.522357 7.284846
-40.582535 -15.465612 13.108714
-40.773472 -15.483807 14.640255
39.012226 -15.430527 27.830763
-38.282066 -15.533257 45.612846
-37.235245 -15.581815 58.092289
-35.375431 -15.396767 0.165509
34.968243 -15.449737 0.165586
29.472294 -15.481217 77.555969
-40.931396 -15.645358 18.596474
-35.781490 -15.888190 33.851742
40.531197 -15.719251 18.765623
-37.168964 -15.713235 73.660645
36.335094 -15.927857 60.813072
40.152805 -15.337626 13.083597
38.083969 -15.892267 49.906483
33.392872 -15.794158 78.356949
-35.799927 -16.112835 36.855988
-37.737030 -16.114138 3.919609
-38.567440 -16.222464 47.752720
35.068314 -16.005384 0.165528
-35.458111 -15.845422 0.165567
-37.201763 -15.825468 74.106903
37.921272 -16.054609 52.735142
32.919704 -16.085293 78.756897
39.191772 -16.529909 25.999607
40.438133 -16.100540 19.410351
-38.626949 -16.318411 48.297497
-35.496605 -16.062679 0.165706
-37.361229 -15.985857 73.620796
38.076466 -16.173418 5.434387
29.747414 -16.480188 78.571022
33.211586 -16.075184 78.742424
-40.663883 -16.366955 20.658714
-40.118565 -16.284023 10.597540
-38.627853 -16.324806 48.864616
-37.380955 -16.479551 75.529373
-26.442158 -16.741268 77.440277
-33.199425 -16.612383 79.439255
-15.146113 -16.440157 77.623947
36.280380 -16.759106 67.362701
-40.586708 -16.672880 20.893320
34.954292 -16.733431 34.214142
-38.667641 -16.863905 50.156887
-38.632229 -16.690639 50.601334
35.137424 -16.542290 0.165582
36.125225 -16.840137 38.513004
19.527512 -17.184496 76.754326
36.947853 -16.701864 76.073814
-32.726601 -16.876238 79.676109
-9.810609 -16.974867 79.409935
-7.606131 -16.905270 79.816437
35.156673 -16.850819 0.165458
35.937542 -17.089380 37.989559
38.380127 -17.187582 49.166721
29.417364 -16.958618 78.915298
-40.593853 -16.982044 14.617542
-40.565281 -17.005323 14.387765
-40.073387 -17.217846 10.872747
-35.132660 -17.251978 34.578911
-36.501347 -17.250668 65.896805
-36.309372 -17.003651 78.663414
-30.035784 -17.123047 79.199226
38.223385 -17.429321 44.900978
38.362099 -17.079844 48.507694
37.258213 -17.247242 76.306107
-35.173218 -17.223574 34.360691
-18.290791 -17.510252 77.175537
35.173214 -17.276505 0.165664
37.242374 -17.711121 40.859386
-3.741657 -17.159086 80.285439
24.349277 -17.349428 77.339134
-38.777550 -17.376871 49.880817
-38.086937 -17.625168 73.636696
-19.569197 -17.920046 77.211258
37.069714 -17.800875 59.279411
37.257057 -17.786091 58.541374
37.531727 -17.630074 76.050888
20.651461 -18.067133 77.195282
-4.312953 -17.777742 80.450081
25.294271 -17.505919 77.721977
-40.274158 -17.592245 13.189494
-35.046864 -17.780695 34.065056
-29.648743 -18.029318 79.785957
37.510952 -17.790743 76.633972
38.534687 -18.004093 47.856796
-38.561913 -18.121243 5.905508
-40.772121 -17.829185 17.028887
-37.453533 -17.799797 40.289486
-37.426807 -18.056637 59.852470
-30.442602 -17.998821 80.080063
19.530178 -18.135288 77.229485
38.503696 -18.123598 46.315418
-5.102647 -18.300026 80.551552
-37.525719 -18.062210 78.416466
-34.063221 -18.415911 81.193634
37.084286 -18.082760 69.062103
34.715298 -18.427980 35.244038
37.274143 -18.489323 28.026712
-37.799892 -18.263529 70.122116
-37.058296 -18.452694 67.234642
-21.219791 -18.489571 77.442734
-18.176363 -18.453314 77.643616
-15.467479 -18.667557 78.302788
36.196846 -18.839775 64.413506
18.779215 -18.757294 77.596062
19.309479 -18.722969 77.541992
34.681141 -18.409082 80.943840
-39.156532 -18.483145 23.910675
-35.963676 -18.598099 36.949390
37.181442 -18.823698 68.906784
37.498135 -18.621565 70.465607
-39.036701 -18.985382 23.382204
34.642506 -19.068964 35.095150
-37.479580 -18.703922 39.912369
-13.086373 -18.746264 78.968452
38.075653 -18.817543 74.922737
24.723621 -19.233646 78.830902
37.417618 -18.984909 78.880333
29.678707 -18.884497 80.569069
-39.762108 -18.897930 11.847458
-40.440296 -18.956249 18.185253
-38.547211 -19.321222 55.030048
-38.310085 -19.076305 77.608055
-20.677021 -19.045111 77.719154
38.640488 -19.332834 50.728317
25.579491 -19.434914 79.312286
37.313244 -18.973722 79.162247
37.623276 -19.187895 78.742455
-36.725548 -19.638039 64.532158
-24.122608 -19.289160 78.534081
-20.116352 -19.574310 77.963066
-19.635323 -19.507494 77.932220
38.360012 -19.762659 42.841633
24.181911 -19.200329 78.619644
-39.422340 -19.477728 11.135502
-40.257122 -19.355059 18.650761
34.892460 -19.682108 30.897982
-35.948391 -19.453983 81.556061
2.912978 -19.751186 80.979874
-40.183098 -19.682829 18.675831
39.259533 -19.690046 17.817219
34.588219 -19.749172 31.423914
34.220974 -19.896824 34.000221
37.568764 -19.809761 25.002995
-38.669231 -19.634302 74.402817
-36.902084 -19.816172 62.736557
38.412510 -20.154152 53.994148
37.116062 -19.746645 80.238640
29.817375 -19.789652 81.219780
30.855633 -19.673443 81.525894
35.814114 -19.778799 81.529442
